ply
format ascii 1.0
comment VTK generated PLY File
obj_info vtkPolyData points and polygons: vtk4.0
element vertex 911
property float64 x
property float64 y
property float64 z
end_header
-114.867368372671 41.9637386609396 1451.50173947376
-105.799252715027 -214.137716081174 1335.36683453511
-114.277985587834 47.5086821069951 1449.99011700615
-116.5772614568 -2.39483353869614 1476.04754086922
-104.181565907853 -221.638325347768 1323.05365206229
-107.169907962037 -173.065663653089 1359.57647510294
-113.704084767944 52.9348556965285 1448.65683853137
-115.557815798781 3.28787063856005 1472.18688880698
-116.811231005656 -47.8899782731014 1492.68464327104
-114.752344929238 8.94736703937747 1469.500700595
-116.027502364136 -42.3014491370608 1490.36092157111
-113.993957218224 14.2466083200435 1467.37277341622
-114.987298808513 -36.3367864742547 1486.27102788327
-114.208058332127 -30.7900622199681 1483.94553146071
-112.762051067966 19.9483251001368 1462.17711404418
-113.611204019411 -25.0425901259267 1482.42866010169
-111.772963456815 25.4071806525862 1458.52517647216
-104.074882766122 -198.725325393642 1360.76381267065
-103.785479143474 -193.868982726593 1361.27932517916
-112.819687976466 -19.4094375540714 1479.90682508615
-103.117075248243 -202.842139124749 1353.94188845912
-110.787908280068 30.8383892692161 1454.87987739595
-112.044708950683 -13.9130322334771 1477.56954594805
-101.90650848257 -206.084378968755 1345.20286015301
-102.912490986481 -188.331292402787 1358.4620628232
-109.996035766324 36.3793681969206 1452.19861229061
-102.58817303716 -183.206175434792 1358.53086880208
-111.242269651989 -8.200810605632 1474.85707287786
-101.132684677653 -210.127827933608 1339.26440954781
-102.492639241581 -178.605684422668 1360.15746578173
-100.139254456267 -213.571812085562 1331.82380815263
-109.438601550927 41.715603268704 1451.03181077672
-110.456391631924 -2.62538168020103 1472.32940297268
-101.968093558216 -173.21467763664 1359.03482179154
-108.649597591103 47.2208641204252 1448.34239042123
-98.2796931741644 -229.775756431773 1314.17522247682
-98.9432739426838 -221.502781824413 1321.60449251673
-98.9979473511942 -216.965545839445 1323.76077281751
-101.656246585544 -168.213703423516 1359.26576248748
-98.3345961084956 -225.280927186277 1316.32817963581
-109.672414646551 2.93076365215679 1469.80000640198
-108.280753515614 52.6809002025421 1448.11445705542
-103.852867216863 -105.970215197935 1396.20147929237
-107.709681950396 58.093279730265 1446.73897429588
-110.418370362052 -47.8541223898962 1487.77798243698
-108.875979606997 8.58147863289176 1467.08232996226
-109.658707230988 -42.4047530717648 1485.61926094631
-108.110195840215 13.9851301793902 1464.73633902254
-108.842644261758 -36.4873440947162 1482.69743072882
-107.100350359059 19.6921029975572 1460.6673327875
-108.071892885258 -30.9529004383351 1480.34251165681
-106.123266713791 25.145199335292 1456.97991220821
-107.288563297326 -25.3169384592939 1477.79558075349
-98.6980692544424 -198.738557800802 1359.36691297493
-97.9312333079824 -202.858697787112 1353.31375881884
-98.7490785345155 -194.024356080423 1361.58347993221
-105.150244568485 30.5703852631671 1453.29940631344
-106.697634443264 -19.598406619843 1476.24191801044
-97.9150182748933 -188.751243584947 1359.14549816675
-96.7542818559699 -206.098449167238 1344.57734548495
-105.931308694543 -14.1149574484346 1473.87587047203
-104.167246324904 36.0766242472798 1449.43786430938
-96.0042220781981 -210.141378681113 1338.65365048032
-103.613019921149 41.4019124751403 1448.24031363608
-96.842986425671 -182.827211196398 1354.91244260289
-105.138981219715 -8.4164220087831 1471.13392550847
-96.9029556822966 -178.230822613482 1357.27710009964
-96.9473022694874 -173.484585882821 1359.43715889279
-103.031132565204 46.9324157120052 1446.6583085627
-94.521707863941 -213.1397871804 1328.46560042267
-104.362554590875 -2.85464431736478 1468.57745095304
-92.8357095082342 -233.664736165294 1309.27924214206
-96.6327295360352 -168.479095254462 1359.64323679178
-93.7140574431987 -221.361853641489 1320.12479713417
-93.9297557532832 -216.975690281433 1323.16358964952
-96.6896956507787 -163.837107305994 1361.98573846705
-102.477717873549 52.2376235777883 1445.44886513321
-93.1274976471342 -225.137709600499 1314.86848012956
-92.5770509396683 -229.163807479615 1310.07969489452
-103.588073661344 2.68763290344925 1466.01945523288
-101.910669176897 57.6390004473971 1444.04272429408
-104.689009444538 -48.0563816903251 1486.62383241917
-96.467138214239 -124.804962977777 1376.09003797087
-102.801881434079 8.32399478444811 1463.2728714565
-97.1799257460544 -105.448283694738 1387.86989960755
-103.921785538655 -42.4881112108942 1484.24098834172
-96.8357357234439 -100.197248917648 1387.76606777199
-102.044977722105 13.7136217614506 1460.89919172238
-97.4766799579595 -90.532939064872 1395.34223756693
-96.5038084509069 -95.0674648897903 1387.83041966578
-103.128411071291 -36.6957587959126 1481.47032669004
-101.249259509099 19.4208151759746 1457.96150252585
-102.364696968799 -31.1647785507837 1479.08082472493
-100.299186947739 24.7529969238123 1454.43203733726
-101.589060385356 -25.5325806994215 1476.49786912534
-93.138914197371 -198.467208323145 1356.76093956787
-93.5471164497717 -194.173676828842 1361.10031960961
-92.7480332879701 -202.870471239605 1352.6545793401
-93.2341052757939 -189.16944654514 1361.34084092958
-99.33958050071 30.1687711753473 1450.72116692748
-100.78837176915 -19.6839765884389 1473.53363737534
-91.7929313767571 -206.391843944695 1345.08117373516
-100.043671512013 -14.3272360015871 1471.32701655249
-98.5520296026964 35.8018389606278 1447.78437197112
-88.4655647250389 -238.917498591747 1310.34961611511
-92.2737918810753 -174.002662390176 1361.7710452705
-92.0623183258587 -178.629804370428 1358.64698739028
-99.2474260904789 -8.52175432116861 1468.36244837914
-97.8199122199203 40.9802279025543 1445.60113652263
-91.4732577855675 -182.705024128062 1353.19100029349
-93.0089043325521 -150.572807506009 1375.89722311203
-92.1326650886316 -169.108259547365 1362.93677573039
-89.215321200101 -217.420487632981 1324.57435949313
-89.6040538691381 -213.293862894926 1328.74554344744
-92.6177349357022 -155.19200769393 1371.74339696506
-92.0044321145091 -164.335031913097 1364.29068651504
-92.2010930453581 -159.522801573458 1367.21978877153
-97.2429795343279 46.4999259630594 1443.98902843628
-88.8437795317821 -221.660162740694 1320.63873252353
-98.6903880849634 -3.08833890957404 1467.13674324834
-87.662431637653 -233.51263610786 1307.8334571272
-88.2614558153153 -225.296632054011 1315.16613379604
-97.9238376611945 2.44881662538781 1464.54352728614
-96.6797456940914 51.9005595080981 1442.55819345242
-87.5643466413072 -229.168931321393 1309.49854817623
-96.1169638904997 57.2899438206034 1441.12042973833
-97.1462193071581 8.07969541053446 1461.76023641451
-90.9968011239495 -124.73261662955 1374.05436251983
-90.437826053566 -129.331078414215 1368.94400650404
-91.2027121720586 -119.921550725288 1377.16938318707
-91.255399944293 -115.249257769989 1379.63539230042
-91.6164774098387 -110.23290154841 1383.42914382985
-96.5915792986692 13.4741428001337 1460.51809114742
-91.2971737508978 -105.240879082518 1383.66366431094
-91.7378610453273 -90.4338330953144 1392.06456911756
-91.7521470531737 -85.2944700040836 1394.00313640767
-91.3379040719375 -95.1729779264083 1387.69634179143
-95.8171842276314 19.0680277832143 1457.7286452266
-90.5943341619942 -99.8539765605232 1381.47416861719
-96.6313641200392 -36.7823327785712 1475.4456905293
-91.0778407823862 -74.9821400757062 1394.02789340377
-95.0578260104325 24.5293921617607 1455.12711195795
-91.0902328846938 -69.8135707972611 1395.9569657505
-96.0744759935692 -31.2984175201481 1474.21716087652
-95.2967624995119 -25.5651639566267 1471.41896111381
-94.108410439575 29.9474343630352 1451.37066923557
-94.533968273032 -19.9713417054521 1468.8095124164
-93.3411696827035 35.4736113623482 1448.57954545437
-83.4405297137179 -243.519972323806 1307.89772966991
-93.7731785964202 -14.3974048202169 1466.19864936514
-92.6015480267359 40.7622683754181 1446.16840147046
-93.014403289481 -8.84336955459871 1463.58649327229
-91.8384362282101 46.2468304333132 1443.37407887583
-82.6324131803725 -237.969326920798 1305.14730245254
-91.291180151551 51.53800752917 1442.10036167122
-92.449486137728 -3.31229716205892 1462.14189893079
-83.3869141535304 -207.695858309553 1323.74262485361
-82.3375942621468 -233.196851430286 1305.47667750551
-82.5795879364976 -224.681350337877 1310.96624332606
-82.8198530901414 -216.084753731201 1316.44468834832
-82.3928709444159 -229.01298928045 1308.002083782
-82.633130384422 -220.457213481152 1313.47585602797
-83.0069431304625 -211.691377864721 1319.4196398868
-91.6938629595552 2.20631175148971 1459.52397162505
-91.1182662565088 7.82395612826891 1457.87932689785
-85.9605826366665 -115.393728688535 1378.71448248649
-90.3781710821637 13.1937623948657 1455.44508815217
-84.2866664357676 -133.586120609751 1360.68171208619
-85.2441421193816 -109.763696531546 1376.16185145242
-83.9724007334639 -128.681094928455 1360.92354571775
-89.804386353736 18.782763999866 1453.78940503393
-84.7380726916793 -104.595939487347 1375.16471610725
-89.0552216091845 24.2291589120523 1451.1604240967
-88.3201847695417 29.5458745106388 1448.72003328126
-89.2458993958874 -25.7357476584686 1467.6806873665
-87.3648548146673 35.1427965411278 1444.56109816227
-78.87939093203 -248.314473881985 1307.62543465846
-88.4811453211238 -20.0378574854221 1464.85164151049
-86.6348086975803 40.4161894430095 1442.12363971196
-87.7425441189414 -14.5949201287939 1462.40316230515
-77.9666280074543 -243.025758420206 1304.68401718464
-86.0790455616133 45.8139740508619 1440.6337730829
-87.1696988197634 -8.9466918787388 1460.74198248407
-85.3401201269613 51.1599236104038 1437.99928176299
-77.4840392834482 -237.804729501044 1303.66595978744
-86.4341435666011 -3.53779102593115 1458.28729485766
-77.3442357697901 -233.191682849763 1304.85257149609
-77.2312356142123 -228.851528917172 1306.47566962717
-77.8363017726253 -207.256964099353 1320.27116539192
-77.0751173941781 -224.074266163448 1307.41307100102
-77.6358247252559 -211.391912958696 1316.8917288307
-85.8749238934011 1.96777283446568 1456.80572945144
-77.1171319057289 -219.858003038165 1309.89421734331
-77.2898377426975 -215.493232536215 1312.82879887591
-85.1191298730989 7.56931929436317 1453.96583334087
-84.5733132872418 12.9346959153922 1452.66344169879
-84.0049182385082 18.5127745913851 1450.97462639618
-76.4823572224394 -169.287098994992 1328.2125670961
-79.119698804966 -104.583094580159 1372.11261183267
-83.4602330680382 23.8567344059538 1449.66080100608
-76.4886607515695 -164.61794342846 1330.19060869462
-77.9035013708152 -123.265764094265 1356.7058150774
-78.0746325930897 -118.508197608145 1359.69341128517
-78.6062154844719 -99.3108239502357 1370.89886847079
-76.1831347567709 -159.833723386541 1330.47185138307
-82.9045986433645 29.3003024751626 1448.15013597209
-78.0931015678308 -94.0473955010527 1369.67810641714
-75.8423218355533 -154.666350068967 1330.16837257773
-75.7074239653839 -150.110039370123 1331.55603457362
-77.7693173176434 -89.0967532337669 1369.81486740963
-75.6992548390818 -145.271941673401 1333.32090264887
-81.9739656278924 34.7860943192367 1444.14016616569
-77.581958273607 -83.853239645102 1370.43766943323
-73.2489001025429 -247.492276520678 1303.29107442185
-77.2569323792348 -78.8980826580829 1370.55724958861
-81.2510596864559 40.0574661195347 1441.66584503515
-77.4159756260256 -68.8948573153905 1375.37460234602
-81.740093804832 -14.7908535281083 1458.57441287079
-76.7432234889513 -73.6529150137123 1369.30377384386
-77.0883321394537 -63.9197319567814 1375.47036059438
-72.6574356674377 -242.544843727476 1302.08966120337
-80.5075824046603 45.5236742606693 1438.80700071213
-76.7401501507839 -58.7134777273062 1375.21727605467
-80.9908344762542 -9.14923572846023 1455.71598461586
-72.0248416467154 -237.168575338158 1300.16932266777
-79.9567850300294 50.9019269617249 1437.27716296086
-80.4475027013669 -3.76193644035261 1454.3998890047
-71.5726989078354 -232.248223899051 1299.57140640307
-79.4065934935542 56.2681939437539 1435.7405974589
-79.893714703564 1.72909491864428 1452.88780169428
-79.3296224309062 7.32126704224596 1451.17902091379
-78.7880591215025 12.6762297993521 1449.84556001614
-78.2253297382474 18.2432582012816 1448.12374873331
-77.8639461022247 23.5948170687378 1447.93489853717
-71.2293377932994 -164.49098987355 1328.29169033873
-70.7500807293314 -168.668151913054 1323.34131722738
-70.9219145236928 -159.710857651954 1328.54922050426
-77.134438954783 29.0085816959866 1445.23655447513
-70.4240970022787 -154.437402270919 1327.27535603161
-76.5737416773414 34.5373255256795 1443.49413401086
-69.0092878671709 -176.052426204446 1308.58408562257
-70.1152408404431 -149.656133575156 1327.50511601515
-70.4245535391712 -131.198662414767 1337.45564935955
-68.3867707022362 -184.419861848263 1300.77202788914
-68.5557200083956 -180.253699015431 1303.96669370699
-69.9518317370175 -144.850612339708 1328.47672516414
-70.1155014020241 -135.754699680911 1333.62189524276
-75.6818285365798 39.7743582657408 1439.83793454782
-69.9448173835777 -140.137701820054 1330.38931202409
-72.9189533993024 -39.1588750337577 1391.36151874304
-72.9005036270848 -33.9490418544411 1393.17475974255
-71.3175343863815 -73.751550275895 1367.0620400307
-74.948090297553 45.2328343776796 1436.94378384606
-71.1431422372238 -63.8879855080562 1370.08814369906
-66.7278896467857 -254.150097975418 1289.18732927549
-71.1347526232431 -68.6256891036332 1367.81007662514
-71.2780158657232 -58.7192859572828 1372.71501313594
-66.7421900963384 -249.919599396124 1291.45729781438
-66.4452506364616 -245.195044698746 1291.75356262641
-74.4125943567847 50.4975011801758 1435.57550891124
-71.112405733055 -53.7924583999621 1373.79683749951
-71.2566612988024 -48.7042918426524 1376.60353366098
-73.867124725967 55.8564251236404 1434.00683500844
-66.3083883317995 -240.771690909915 1293.12991980804
-74.3031355570908 -3.86705290957364 1449.12985612432
-65.6874313768142 -235.427933876774 1291.19691907695
-73.7658858969523 1.49086685422046 1447.7791387567
-65.2395850689946 -230.536420170283 1290.57372455519
-73.2089120141419 7.06342126050081 1446.04222494677
-64.8029599775064 -225.786367121379 1290.1529608677
-72.8477553171517 12.4088311522368 1445.83504841243
-72.2916065010097 17.9602461524803 1444.08286711531
-71.9303147604777 23.2963106543098 1443.86140892401
-64.4859427009515 -266.480809184436 1300.73918136781
-63.7360902140875 -211.273184738064 1289.6324625426
-65.676106842563 -164.125942230842 1324.48394479439
-71.385105627254 28.7171087077575 1442.28722550246
-65.5204922854439 -159.46997935133 1325.65342478865
-63.4428527202182 -206.660526347737 1290.00230754961
-63.2954232890262 -202.180066738728 1291.22877916207
-65.1904411959795 -154.44093974041 1325.48497251014
-70.8305012345287 34.2339438272751 1440.51216105597
-63.2795129195019 -260.379810444348 1295.38255982898
-62.9675554587755 -197.154672749037 1290.94205456356
-64.7267829287073 -149.55615212394 1324.74494937248
-70.1246957544023 39.490854362844 1437.97347616102
-62.8287970092486 -192.790077990597 1292.34824676709
-64.5488063437931 -144.633332162854 1325.49938477381
-63.5515517317602 -171.337327874698 1307.17865191479
-65.2530820490336 -112.41681058876 1344.42194843326
-65.5487725165718 -107.753693360796 1348.28236412103
-65.5316131119675 -102.911458080954 1350.18036279849
-62.6677874265121 -188.151057912539 1293.33220091234
-63.2474664398479 -175.418595244047 1303.10471819751
-64.3799281322465 -139.828040786472 1326.43469062187
-64.3823903809677 -135.358138665723 1328.67922213546
-64.3560462251629 -130.504997104468 1330.37119040259
-64.9406582452968 -116.811894334104 1340.22579998708
-62.8067378828638 -179.477719017511 1298.34601534559
-64.511262048854 -126.095289421704 1333.56593958686
-64.638945878465 -121.299937405897 1336.22615032796
-69.4109615042332 44.8351591363401 1435.23953649907
-62.5059763758414 -183.503514042091 1294.30669623053
-65.878973664453 -64.0470203915357 1368.78019773027
-66.0113179756942 -58.9975385181969 1371.5514281625
-66.2756831192207 -44.0329816160125 1379.39096414782
-68.6993956784602 50.1586092350518 1432.50500023207
-65.9921833969318 -54.0009002234788 1373.46821766743
-65.9727814761125 -48.9902233221066 1375.38601820304
-61.4893814956094 -253.495706068936 1286.36994905042
-61.5060404064308 -249.418510893712 1288.8568750452
-68.1595058747863 55.5049358617704 1430.90516485113
-61.0387909735649 -244.242856802326 1287.79531082825
-64.0296700576016 -82.6141826030428 1348.44450056037
-64.0046497749064 -73.0718156954923 1352.51590337831
-64.017382271174 -77.8503828517821 1350.48123665238
-68.5619367805679 -4.20612199787142 1446.52778413955
-60.6186900756814 -239.651922431737 1287.65844593482
-68.0197985922387 1.25550695037 1444.95529645681
-67.6395087683113 6.82232802572964 1444.34037925386
-60.0072223360284 -234.326252487379 1285.70766637953
-67.2780716605785 12.161173109192 1444.10160468973
-59.5627766149455 -229.451384914113 1285.06325307488
-66.8974333726928 17.719527175426 1443.46872098199
-59.1287747361527 -224.717901521929 1284.62249517487
-66.3660111570456 23.0347364917082 1442.06115631955
-59.3729332362431 -270.506922617214 1296.94794143082
-58.8153724459533 -219.854921968594 1284.5803518072
-66.0042934735131 28.3615872460711 1441.80052423327
-59.2319948593079 -266.109099871693 1298.41691910139
-60.1524806090232 -163.757088619982 1320.65073744083
-58.5332792579994 -215.402596938368 1285.18027218779
-60.1406342440868 -159.224986606203 1322.72761231167
-60.2591466371849 -154.534844014561 1325.35527332236
-65.4548436403833 33.87612289025 1439.99042638754
-58.218433617487 -210.533489990689 1285.11036453741
-58.3458052944743 -260.513353432702 1295.01710472239
-58.066561885342 -206.073322873027 1286.32535124607
-59.9468583356081 -149.755274823774 1325.53752217421
-58.9706407950632 -167.196615118229 1310.97432054513
-64.7570095127338 39.1306828325651 1437.41482712704
-57.9135645329042 -201.602047818321 1287.525066725
-59.6245787391387 -144.847943980483 1325.51350846554
-57.739585871961 -196.854237777278 1288.29557281224
-58.3884573496993 -171.064794547259 1305.07220150013
-59.4511987092537 -140.040370613115 1326.42607932687
-64.2097513916389 44.6139279139995 1435.59314615622
-57.5847479230874 -192.363576372932 1289.47145402409
-58.1012567741814 -175.141323121645 1301.01895091928
-59.2860041985 -135.348388179247 1327.51625767126
-59.939917505419 -112.338310943249 1342.1726833001
-59.7535634176879 -107.324344288732 1342.87551474424
-57.4191710763239 -187.731542353912 1290.42992185036
-57.6898910498149 -179.325486821237 1296.48372783222
-59.1024790291577 -130.403045376817 1328.2283640478
-59.6450825465438 -116.727259530631 1338.0020096059
-57.4059560394501 -183.347538963193 1292.46714484335
-59.2442280997301 -125.998940958834 1331.39887721057
-59.3602672016465 -121.209338143743 1334.02942525497
-60.7439450353969 -59.1590121982735 1370.18463267773
-60.8731093826496 -54.2080649005767 1373.11036195684
-63.5061531403474 49.9377025527728 1432.81752000129
-60.680572816599 -49.0467207726591 1373.79324508594
-60.6525679912247 -44.0272315264439 1375.68542387169
-60.6323609680098 -39.1067377206808 1377.75056502527
-62.9703250716248 55.2840025438999 1431.18033753689
-60.2733243039018 -33.782047675136 1377.20521025535
-56.294584292768 -253.132742136092 1284.00580189971
-58.6306250685418 -97.039952389586 1339.53661170549
-56.0070568388492 -248.578258062534 1284.51144718149
-58.4511193504054 -92.1438572692722 1340.38974935764
-58.544263706501 -82.5151020092211 1345.03892217516
-58.6748093788552 -77.8199288231766 1348.03856527969
-58.7977345862649 -72.98837746047 1350.87509277789
-58.2790441709606 -87.3575301896144 1341.40865901946
-59.6173762883494 -28.6401905296101 1374.90895193283
-55.2638826230481 -243.089018184317 1281.71522510095
-58.9553454351676 -23.4049626128846 1372.43975573868
-59.0795897582847 -18.3697385315695 1375.3453090705
-59.2120881886864 -13.4228888465851 1378.43166888315
-54.7052732307506 -238.35463178463 1280.69516696351
-61.5840183457828 6.56699960338196 1439.14156419999
-61.2320295187473 11.7751425838 1439.06074962364
-54.2436953918384 -233.209270294652 1279.58209040087
-60.8451986290463 17.4241567656106 1438.2045919934
-53.6639018580977 -228.199277341549 1278.05736390725
-54.2975376107065 -282.846955342837 1288.47808116977
-60.4843375017158 22.7374477172266 1437.91910668848
-54.433702730431 -278.871494113096 1291.68059079934
-54.4411333924367 -274.846781971334 1294.28448083289
-54.4240336315581 -270.488354612228 1296.35407675846
-53.371681597196 -223.637025183085 1278.446061016
-60.1232910592348 28.0483361409531 1437.62610664622
-53.8433553453778 -265.39856936976 1294.94396327503
-53.0586930276792 -218.792327767943 1278.3739493667
-59.5811096236931 33.5463233807026 1435.78625388713
-52.9129434345561 -214.501844028635 1279.8038367756
-54.3475556090609 -158.636171968746 1316.96670725785
-54.4530941815298 -153.962634231522 1319.54779672902
-54.0722417974079 -162.793778125809 1312.88171000716
-54.5845732358223 -149.647167234748 1322.714677028
-52.5985046733734 -209.648438492202 1279.70536420062
-59.0569977869727 38.8156897892915 1434.33120969617
-53.6635722968048 -166.934282509139 1308.08906906564
-54.3990462606585 -144.726576481645 1323.41717468985
-52.4410130372169 -205.202540707391 1280.88680546873
-52.821723384828 -259.486507853101 1290.41390450039
-52.282475356232 -200.745793908059 1282.05307594059
-54.0758238759179 -139.823394201424 1323.3558534769
-58.5250595715455 44.180167552314 1432.67462745855
-52.2437223928319 -196.147582161795 1283.66264723457
-52.9735043745143 -170.804503890624 1301.51037552526
-53.905677602294 -135.139842827599 1324.41836499903
-52.7046239755672 -174.873161399367 1297.4974814523
-54.2182246459779 -116.554088096699 1334.77504910756
-52.0925375601669 -191.80080411255 1285.0139091979
-53.7266699453848 -130.325494423461 1325.28541027275
-53.9587575889273 -121.148254560092 1331.01955384959
-52.1648638953371 -178.796124593767 1291.91239875661
-53.7006664839696 -125.716522143128 1327.28317507775
-57.8322232985728 49.492542712527 1429.87007809098
-51.9223993248746 -187.180651541883 1285.93979104042
-51.8909096388156 -182.678262371663 1287.73898716501
-57.3024901724842 54.826916003987 1428.20305180624
-54.7605381061351 -44.0653128742034 1370.04652772594
-51.3923376177597 -253.101968635444 1283.32080982911
-54.2298149775803 -53.8870879840306 1362.24209222966
-54.3432120817116 -48.9528598607419 1365.10473492912
-52.8229743385464 -106.150727809427 1329.5149390318
-54.0041306568249 -63.69361414221 1356.54492607619
-54.1094800169287 -58.6866879101739 1359.21785495215
-54.5784159502796 -39.1342880146491 1371.02910299074
-53.5789929125677 -68.2340367024542 1351.3564403891
-50.8171445681789 -248.06595741547 1281.85359334308
-52.6480506019253 -101.413512093968 1330.51629213704
-52.8730750938291 -92.0699546108943 1336.21652238004
-52.9896972815049 -87.4258863230473 1339.16431133049
-54.2221610172392 -33.8347909317134 1370.45519651347
-52.6107752778812 -96.6223133708378 1332.30453439331
-53.0615917191042 -77.7866808980723 1343.74943388392
-53.1714706787789 -72.9693366168405 1346.54600935986
-52.9447676656847 -82.4682708730446 1340.79009324673
-53.8803491371489 -28.7616413644606 1370.21660384322
-50.085467652457 -242.582861883689 1279.03552896402
-53.6896824988842 -23.7086715397504 1371.01110162396
-53.7946428562995 -18.5691098501537 1373.71865621685
-53.4514054509846 -13.4867588832394 1373.46180470988
-53.2523000134745 -8.30447285364189 1374.0734268114
-49.5313422217925 -237.85492855858 1277.99887055743
-50.0673886226759 -279.754408608588 1294.79803589711
-50.0657410426362 -275.720146040053 1297.4069743178
-49.4076540309763 -287.130703228061 1285.8371132636
-49.5203171467978 -283.013855711553 1288.75860401739
-48.9384482749183 -232.559367126011 1276.00819532134
-49.3303851526519 -270.125921057787 1294.60437533176
-54.8018159815973 22.3492513853358 1435.08893816904
-48.365505496047 -227.559140204657 1274.46381662376
-54.4334821654259 27.7577369796791 1434.56981486773
-48.0716738318848 -223.005751308772 1274.8284669069
-54.057127530596 33.2697368729173 1433.84544835855
-48.3453997840948 -264.505007369084 1290.58178511811
-47.9027853754314 -218.455559826634 1275.80759467498
-49.3058264316647 -158.609461865136 1315.85210219626
-49.3775328809571 -149.516927637782 1320.61403895604
-53.7044917118586 38.4547848941128 1433.70314838414
-47.606962570893 -213.888466053029 1276.13433133066
-49.0467390862421 -162.764831405873 1311.78390754377
-49.2592349775318 -153.827460576042 1317.47122073773
-49.3382169343762 -144.830222170619 1322.42684868121
-47.4364026783943 -209.322088582104 1277.08677667269
-48.5175978412601 -166.78540442599 1306.09138622919
-49.0144677941402 -139.927889489988 1322.33878126317
-53.169762065076 43.922328432047 1431.81452139231
-47.2736712751585 -204.881580098762 1278.24181674386
-47.3448592360065 -258.607761228691 1286.04144474478
-47.992982239839 -170.771098981779 1300.4468360822
-48.8395340798068 -135.245700216056 1323.3766349506
-47.2452026609953 -200.567240550147 1280.25091977595
-47.7400242686711 -174.837825903662 1296.45027632017
-49.0078913079273 -121.348726018987 1330.87088556981
-47.0639651741832 -195.837980064775 1280.96192112155
-48.7910016149134 -130.405106455846 1324.98591197478
-48.9067149687318 -126.008963203859 1328.11035506989
-52.4863186140884 49.2305974360141 1428.97276571615
-47.0424460305863 -191.628574783771 1283.16365359343
-48.5304338861212 -116.207803575779 1329.58631225722
-46.8681081951895 -187.011778988528 1284.06481950354
-46.9728823483191 -182.768877788783 1286.92586503822
-47.0777451363794 -178.505748338129 1289.78998821436
-51.9617743665462 54.5604708260439 1427.27042865686
-46.3600068522269 -252.896201387611 1281.75324402834
-47.925642720192 -111.23337416907 1327.6907607123
-49.5045831671673 -44.2365864752424 1368.52964419633
-49.4018430508384 -49.1937327839917 1365.67371537341
-49.466092166448 -39.3407808810527 1370.5257719665
-48.8348828610665 -68.5350847807895 1352.98518437382
-48.942679235437 -63.7788196504059 1355.97306820195
-48.8976476391888 -58.842695808558 1357.77713238404
-49.0055968795962 -54.0478457625642 1360.77645914552
-49.258943674008 -34.0686834572418 1370.96173768326
-45.6566046796067 -247.695153678183 1279.40775304218
-48.0029415560141 -87.6211967637299 1338.85573789697
-48.299529584329 -73.2207500966904 1347.17433638849
-47.4048624259505 -101.34174383643 1328.15202137531
-47.5085732082546 -96.7455212802373 1331.05781833528
-47.891124843836 -92.1480560060293 1335.75097004715
-47.94438440781 -82.5477266661116 1340.28348183556
-48.0563081362026 -77.9826273802558 1343.39884757701
-49.0648424045722 -29.0155491088202 1371.738811001
-47.1670721477389 -105.958261616534 1324.46937439102
-48.8703135804995 -23.9567052382605 1372.51113895098
-48.6687309066771 -18.7822110458749 1373.1056129054
-44.936401349975 -242.216687596927 1276.56538025014
-48.0371148972267 -13.7892868103585 1370.89876291043
-45.2751708832239 -280.075994667074 1295.32525436616
-44.3777203322009 -237.349609149827 1275.27265416663
-47.8284986892907 -8.50813187462029 1371.30807827762
-44.7401917095985 -283.175573331423 1289.01543487537
-44.8392727975101 -275.164320780242 1294.78287992158
-44.5058739396161 -287.105880296776 1285.25919295464
-43.6698653852954 -232.04686159463 1272.63996349124
-43.8486816795545 -269.214119051356 1290.23267007168
-43.3580984502131 -227.219354927026 1272.54501129799
-43.0626739357842 -222.669593351022 1272.89043095079
-48.5466428845831 32.9929515682712 1431.86804756755
-42.7662773452276 -218.113629673289 1273.2137111676
-44.1728424614344 -162.975420228888 1311.78296229814
-44.2715014301816 -158.578744601671 1314.70600015937
-44.4691645443614 -149.723477751408 1320.56421894056
-48.0398549488983 38.1397311412032 1430.54702288778
-44.3630527510212 -154.035055167911 1317.43638649428
-42.8827504833437 -263.60741109114 1286.20016715685
-42.6003169906292 -213.696423885903 1274.37389061721
-44.1386301287373 -144.701100146902 1320.26717367027
-43.5291342195135 -166.877969145173 1305.17957665726
-47.6659226797705 43.6290306173017 1429.77216494329
-42.425529394366 -209.132667534434 1275.30192032732
-43.9529337439804 -139.905051266178 1321.10150435201
-42.2500559954962 -204.560417182501 1276.21920795853
-43.1545137346305 -170.853612727674 1300.26229491352
-43.9186462642426 -135.446325019962 1323.25861521657
-44.0020566128929 -130.699198041785 1325.80288248589
-43.9669732719818 -126.207636692997 1327.95418885046
-42.2209402698522 -200.38375756402 1278.41936588022
-47.1530778829796 48.8627497391987 1428.24099756462
-42.648220626376 -174.676010890067 1294.47184533261
-42.1682515827794 -195.79157970578 1279.97647445779
-43.6333271046458 -121.159447715486 1327.61430232544
-42.0347094200498 -257.897750255723 1282.5047320127
-42.0057358605359 -191.451583819335 1281.28373661718
-46.6339708965222 54.1889424754954 1426.50448332676
-41.9595529766346 -186.967042696661 1283.03964519738
-41.9202732151132 -182.599051232703 1284.99683491804
-42.0204431658236 -178.46885258983 1288.03839650925
-43.1611503386233 -116.028491695675 1326.30369290488
-43.4830070963852 -92.7324987971574 1339.54615696105
-43.5844321381737 -88.1932254358131 1342.65521603794
-43.6217801911876 -78.5271056100736 1347.18925319217
-44.0246343742055 -49.3203822077067 1363.11891983976
-41.2082396014045 -252.515212272481 1279.3030473019
-42.5644954673506 -111.06404796424 1324.38673724649
-43.52653455687 -83.2209595209955 1344.24650429374
-43.4222996159829 -73.4711293561083 1347.78023445822
-43.2224576937992 -68.4105545077479 1348.36612214938
-43.8222014943184 -44.1915143805169 1363.7005016405
-43.6671822027136 -29.2897110398524 1369.23343138809
-42.6919037031611 -97.0089658545674 1331.72777758199
-43.4883693105355 -39.2518849859477 1363.58965046649
-42.093804291525 -105.954101804913 1323.06138739906
-43.463104409856 -24.1293988198776 1369.80228996454
-40.5061044440114 -247.171291768826 1276.69173611654
-42.0475345125801 -101.31030300525 1324.96761339672
-43.8222264500948 -3.90543040200786 1381.19574838633
-42.9718052889737 -18.9351058690676 1368.27597569683
-40.2871103766309 -292.1665684466 1286.56546830368
-40.4690691064642 -280.232609147974 1295.55997338043
-39.6686713135906 -241.537476392531 1272.97893931151
-42.6300413038159 -13.8722955999477 1367.96074757862
-42.8606666808652 -8.84047174889474 1371.82720301966
-39.997320956817 -287.646783770231 1287.203182783
-40.0878848993883 -283.520971643445 1290.10453281254
-39.772443801691 -274.945261998925 1293.26184230871
-39.1240223166718 -236.823466812237 1271.90173698771
-38.548072016586 -231.542824804701 1269.86433778164
-38.7908728600136 -268.838407988206 1288.41978750144
-38.2442432341721 -226.862197059126 1269.97434249238
-42.9001768091412 32.6900635702284 1428.70618074041
-39.2982241023515 -163.182942713877 1311.75752314621
-39.3855258471739 -158.784874840254 1314.66418230719
-39.4663861609305 -154.239696179121 1317.37658257962
-37.9473068655501 -222.317381597326 1270.29443497963
-39.1500974601519 -149.477503121939 1317.45526298758
-42.5480452418534 37.8548473211736 1428.50282247165
-37.6421932876761 -217.628582279824 1270.36953524254
-38.6726770577436 -166.956944114363 1304.95925262005
-37.9700839936319 -263.411386994689 1285.22755960488
-37.4785782262845 -213.354526608868 1271.72608976632
-38.6929234091885 -144.484182230071 1316.37954275944
-42.1829704675166 43.2295298550116 1427.89393161665
-37.2926571582668 -208.660511107077 1272.4087665212
-38.1915152864679 -170.940515810823 1299.34064091418
-38.6375223730382 -139.80020811095 1318.12779473761
-37.2551732459636 -204.503483351535 1274.59654587388
-41.6692204777127 48.5604621032617 1426.13045629321
-37.0818490757632 -200.058464687053 1275.68979992542
-38.2122392819361 -125.730061614654 1321.81988080267
-37.1440322301924 -257.852068547213 1281.76018593908
-37.0223510118615 -195.472252712751 1277.21741691153
-41.1564222359795 53.8776749699097 1424.36086230579
-36.9827536209399 -191.269831342234 1279.37420771803
-37.174027132287 -174.015518586404 1289.56614871454
-38.1491510833746 -120.878615904717 1323.36761722998
-38.4126482596615 -97.5597063206727 1336.30152884496
-38.6385518846664 -93.1114581976156 1340.37945145139
-36.8005968284579 -186.660022727598 1280.22564426659
-38.443184155115 -88.2031608389947 1341.1300610899
-36.7529756355225 -182.298397456958 1282.15451331658
-36.8402593948656 -178.174509473672 1285.16685215498
-38.1052798903084 -83.1106975560456 1340.70301810241
-37.5547693376691 -115.796687210553 1321.25697766525
-36.3215372860891 -252.317180351663 1278.2828786897
-37.914643375173 -78.3105032063484 1341.61615222309
-37.1007336326603 -110.929306986877 1320.27428400178
-37.5763872557173 -73.2188724578812 1341.17532728951
-35.6367924648799 -247.120386214306 1275.893717829
-38.6694447694343 -4.12597223496635 1380.45325846232
-37.2381500321164 -68.1303713845426 1340.72781626305
-37.7122184952368 -39.3033203469667 1357.85275807736
-36.4976333567277 -105.637805995914 1317.78940158974
-36.7146296398071 -101.275640235998 1321.754806502
-37.6396420236242 -34.1047990217076 1359.24704029067
-38.4496712482551 -9.20275247079745 1376.55286210413
-38.1835579586665 0.977702952616849 1379.02512215698
-37.0514998312803 -63.4324757244158 1341.79015309637
-37.8689514047309 -19.1461198420429 1367.5934159315
-38.0910583440133 -14.2396495450468 1371.62015627884
-36.8486375344143 -58.3886004502499 1342.3299815001
-37.3009548369733 -29.0712929471388 1358.92118200811
-37.6877371054045 6.28490935811489 1377.23671207454
-34.9389404826906 -241.645696623174 1273.00078047062
-35.2286820567828 -287.965560549577 1287.70619013746
-36.6506361764121 -53.4526696135591 1343.03624105178
-36.4522605159045 -48.5114497233554 1343.73743656725
-37.7771888853 21.6741997951745 1384.65768696649
-35.0450742997189 -283.294065706437 1288.60010354085
-34.7502354119188 -278.748019951817 1289.17097309219
-37.3487595135752 11.2674965813448 1377.04031640301
-37.2736456669943 16.5905834036985 1378.43281777473
-34.2652110818049 -236.624914451299 1270.81719097133
-34.3274016358793 -274.007775656935 1288.85099246093
-33.8286171735189 -231.641781667876 1269.83752106174
-33.3990778241457 -226.804786358796 1269.07571616009
-34.7609825201503 -159.216784159989 1316.47940454241
-34.5475820469084 -163.376042912912 1312.43846826622
-33.6279049347949 -268.432310634504 1285.98068697561
-34.4327082192291 -154.203311647495 1316.14734780563
-33.1006073832451 -222.259666938925 1269.37517872833
-37.2159037231265 37.5995946309147 1427.57061991636
-33.9463504381663 -167.151004404346 1305.63350462009
-32.9193462867147 -217.717690425752 1270.28294932636
-33.8548913978492 -149.227662662847 1314.31697870446
-36.8524356224131 42.9698072665963 1426.92797915304
-32.8205351146474 -263.009412192387 1282.76561984921
-32.7503499037564 -213.441703654142 1271.62535737207
-32.5613475329705 -208.744570257263 1272.28625562257
-36.4947573753371 48.2298318776256 1426.4791187365
-32.5154309299158 -204.586164847455 1274.46146062759
-33.3968267450774 -144.118843313948 1313.02234815136
-32.4626261869615 -200.276313851307 1276.4081551548
-36.1314381034802 53.590208548667 1425.8203277905
-32.2719558070834 -195.550459951653 1277.04488740107
-32.2240381957256 -191.346910444202 1279.18867943391
-32.0090110516109 -257.454505143386 1279.275149481
-32.1695087145622 -186.995295708512 1281.11084944087
-33.0237334952654 -125.494962504048 1319.30686057982
-33.4389645609611 -97.749368379154 1335.95606105843
-32.1232335378561 -173.844720236077 1287.52702094709
-32.9593337570118 -120.771088002618 1321.01229499263
-31.9830843161342 -182.372019176903 1281.93318892737
-31.9331303654344 -178.123494353993 1284.0439303591
-33.1135579370237 -92.9067237187227 1335.87650078027
-32.9150865072126 -88.0130906808753 1336.59506056335
-32.5034880265237 -115.78017471768 1319.83513360359
-31.3248612243491 -252.093453780657 1276.6282014322
-32.7113480682799 -82.9979738246448 1337.12966453512
-33.7280239688345 -9.44262738119043 1378.99475570735
-32.5169698672752 -78.2091626020077 1338.01404082026
-33.3908397392426 -14.5972552752237 1374.23436921469
-32.053077737424 -110.915930706191 1318.82907186138
-33.3841697541702 -4.34240220922484 1378.61066825695
-32.3173390765135 -73.2990197238162 1338.71476904339
-30.5264779544406 -246.732107772166 1273.36274065156
-31.7903268790141 -101.343731267865 1321.22294026137
-32.2447199405968 -68.3209379305561 1340.23278963529
-31.5884007195667 -105.704644160529 1317.26991869889
-32.5133094036339 -39.3623703554637 1356.03307630706
-32.9035845545548 0.754636425904021 1377.15288798279
-31.9804372290337 -58.6252488832895 1342.78962671549
-32.305368991398 -34.2545716917292 1356.53984253375
-31.9169666531838 -63.4627374127269 1340.09942593649
-30.7042296396406 -288.665606714721 1289.90540933766
-32.2357887559895 -29.275744967818 1358.24739519644
-32.4143936490144 6.05473843189037 1375.33246772381
-32.8190458825975 26.5207163981626 1387.83289993444
-29.8407288364695 -241.262426779803 1270.44581269514
-31.6470965358893 -53.6461665390976 1342.46674920175
-31.8977897340996 -24.2466228171319 1357.88630804413
-32.6107452239601 21.4365659184496 1383.74300052869
-30.3924422755987 -283.792191960747 1289.92214628308
-32.27196243884 16.2639809202353 1378.78705736835
-31.4410708812038 -48.5947413779217 1342.97011794397
-31.1251012794253 -44.0603840089867 1343.30964495277
-32.2118947825935 11.0383779730871 1376.17293833339
-29.8397072524403 -278.701993266852 1288.47498775371
-29.2981818276296 -236.405499980034 1269.08914196387
-28.7438874312037 -231.26855113788 1267.23493501119
-29.2874401084841 -273.616885183517 1287.00079668176
-28.438794421433 -226.589370195066 1267.29819504737
-28.60619749232 -268.200201698165 1284.37327005788
-28.1448615481641 -222.186297989457 1267.80301757157
-31.3928539430612 42.5696828470829 1424.97974336301
-27.9540348100142 -217.507266652882 1268.45767936396
-27.7796373337374 -213.234157964548 1269.7778457419
-31.0317111357996 47.9262890399134 1424.29668424228
-27.933600940783 -262.954794046063 1281.99206974255
-27.5933075199341 -208.676029307639 1270.63463634948
-27.533101834616 -204.384626223077 1272.56525683639
-27.4723774581751 -200.078063200455 1274.48791070209
-30.6706936503925 53.2772440603159 1423.60458202933
-27.2842584837516 -195.488682987565 1275.31393770713
-27.2275910574241 -191.287694900115 1277.43137708127
-27.160064496136 -186.807805930695 1279.1170372082
-27.1351678457834 -257.39683826533 1278.47326417326
-27.2791649491342 -169.755462184795 1289.5407440046
-27.0921641034439 -182.3149810725 1280.79882819789
-28.081582020052 -97.7182756263914 1332.62340697428
-26.9117687843145 -177.944036076233 1282.00167915836
-26.9651797193952 -173.548049682128 1284.56350145062
-27.538781237781 -120.604404348793 1316.89822602494
-27.6244609100114 -92.6996120120415 1331.35037518957
-26.3404355642044 -251.863787474924 1274.94496590245
-27.4273426611901 -87.9369500373506 1332.21520327635
-27.0841085911272 -115.506852105641 1315.51018909996
-27.4773015444291 -83.0606134597091 1334.69560967521
-26.7807374044919 -290.50579377514 1296.72007217966
-27.2792906652576 -78.2791145437988 1335.55128679572
-26.7641747819347 -110.737240815543 1315.43610569936
-27.076740978964 -73.3766347176743 1336.22290963139
-27.8467385086514 -4.55026632886757 1374.60204284607
-26.6214472723976 -101.377422843303 1318.91114548199
-26.9978149121577 -68.4066952246594 1337.71055756152
-25.7946827536289 -246.835702410975 1273.36041568657
-26.0943863816393 -284.862124220404 1293.82900809319
-26.3103986280483 -105.654464352806 1314.03188112717
-26.8025591768083 -63.71748907114 1338.72227273675
-27.5048093111558 0.532149357389661 1374.18133325992
-26.7795627216035 -53.9914278709725 1343.04913090906
-26.9914551194138 -34.40263964617 1353.80068904043
-27.6941739900284 31.5727727377298 1389.48642276343
-25.5603830735168 -136.738170313055 1292.1737891046
-26.5949540992244 -58.6829639164886 1339.20559464364
-27.0488050910972 -29.5665480662086 1356.6836537027
-27.5095129827459 26.2581113221514 1385.77731068648
-25.000020212897 -241.197541570703 1269.56157915962
-27.1548414062012 5.82505643400504 1373.39433976194
-27.0521702079192 21.150229449186 1379.56256578595
-25.1250646143762 -131.961728014589 1291.22840239478
-25.1736896705165 -127.435212710208 1293.75450303074
-26.5783437548081 -24.4141723919393 1355.08711026281
-26.497056130813 -19.3192795300907 1356.5827345067
-27.0808426667544 10.8093021911818 1375.27333460266
-26.9984371354835 16.0186438149528 1376.79009387556
-26.186727979436 -48.8255234916283 1340.50349817609
-25.9783080676231 -43.7787777613972 1340.97260879682
-24.6872432602262 -278.114910476248 1285.75329051993
-24.5812489696869 -236.498837674415 1269.03342841321
-24.5071520332941 -273.746359986778 1287.11547394175
-24.0333577765416 -231.357025028224 1267.15219146171
-23.835085747844 -268.322956771837 1284.45884073886
-23.7276613459504 -226.674433004256 1267.19453789945
-23.426604871388 -222.128928800731 1267.45233602814
-26.2152748023887 42.3426761421125 1425.09598561466
-23.1249558131202 -217.577824246155 1267.68783939812
-25.8602011865054 47.5939105020054 1424.58326763035
-23.0520473736572 -262.894323958183 1281.19074811017
-23.0584143907866 -213.311811345665 1269.62177475826
-22.8685734852248 -208.751127387963 1270.45894339994
-22.8009333407033 -204.458054432922 1272.37407049759
-25.5010342041355 52.9448695830562 1423.85827944476
-22.7373824486797 -200.284338177749 1274.49979773782
-22.2669359534557 -257.333420356694 1277.64360928338
-22.541294825054 -195.558309758524 1275.08706009751
-22.8198798959328 -161.402857780123 1296.59070230282
-22.4765484382043 -191.35631496636 1277.19106825878
-22.4024505692015 -186.874763525743 1278.85815665377
-22.7707575284848 -165.740894300936 1293.81126737901
-22.6272794396588 -156.821181151763 1297.53025162673
-22.2136507275193 -182.383983757381 1279.84547727129
-22.4818386188924 -169.819487463952 1289.22392718104
-22.1471313006284 -178.13780747669 1281.91577074809
-23.1194022903977 -97.7845912702387 1332.03116817641
-22.1907093055529 -173.740171402427 1284.45984623545
-22.3055203475899 -151.872618180521 1297.13920301523
-22.5140704261065 -120.578265030739 1315.43730916833
-21.6027532291389 -251.967358979875 1274.94210727706
-22.6703806744811 -92.8832321588805 1330.91332991425
-22.5939531963447 -88.1867148337449 1332.74363402679
-22.6345812139218 -83.3076749361974 1335.20597151246
-21.7514356962106 -146.964067743027 1295.29039045747
-22.1905247887806 -115.687853488339 1315.16426837378
-22.3085608255414 -78.4642122510939 1335.04460859285
-20.9458049328248 -246.767911719433 1272.4781569628
-21.7485742949592 -110.83608930447 1314.10761927485
-22.9862619030808 -4.88564017662497 1376.07362424126
-21.9755415900774 -73.3925914439147 1334.51750254247
-21.7142292548558 -101.557586485094 1318.49716584374
-21.0718019755408 -141.721030363648 1292.12450236511
-21.7699628343341 -68.4900159940259 1335.15707053662
-21.819048873041 -63.9052885679329 1338.14290782679
-22.6449748346701 0.202303809050247 1375.62312161306
-22.7746698188407 31.3739898602715 1390.64675708831
-21.4215964052215 -105.833400903174 1313.63101026103
-22.6068888912291 25.9506612937682 1387.13851185747
-21.8698785678255 -29.7458445826488 1354.91382056279
-22.2969275181358 5.50081977080175 1374.80402257517
-22.4293075192101 20.8712757868729 1383.08478173983
-20.3974282698508 -241.452415082262 1270.35312638726
-21.7302654761941 -58.8037625785344 1339.42770455055
-21.6546194842725 -54.1412032399477 1341.41426368782
-21.9126610474722 -24.7859309546233 1357.60363009333
-21.5719957550577 -49.2411601632271 1343.04967662128
-22.087498380471 10.4817639782133 1375.59311028392
-20.5137319400263 -136.599520699866 1289.87314365742
-21.9991797117868 15.691664843034 1377.08683067064
-21.3192529132288 -34.3589790068595 1347.78134376577
-21.6960445399712 -19.5571869847082 1357.86480127031
-21.7451255535374 -14.7834241303773 1360.91445143059
-19.8688832938898 -236.732358898697 1269.19497261006
-20.2850957941121 -123.096892587196 1295.20115232515
-21.1124306011418 -44.1166807999974 1341.47127582234
-20.2042561395551 -132.043429968442 1290.0059967531
-21.0321709768069 -39.3144832717344 1343.26947155372
-20.1208501008606 -127.308603458169 1291.40303495427
-19.7941905079117 -278.055667337134 1284.99806082159
-19.3274546491309 -231.584153559375 1267.28371058471
-19.4920169079141 -273.501234478912 1285.47662480756
-19.021209339121 -226.896862431629 1267.30242232097
-18.7188356334884 -222.347110573713 1267.53791667433
-21.0399758804177 42.0091668179279 1425.38788983676
-18.8306576402418 -268.078387715125 1282.7939201668
-18.4119105486942 -217.652856252575 1267.52114770419
-20.6826995830156 47.3652913666961 1424.63710461667
-18.2232494886553 -213.239389998146 1268.57720863505
-18.1447718755082 -208.821863777051 1270.25703654329
-20.32564564163 52.7152528216189 1423.87718699654
-18.0608819204624 -262.650629625793 1279.50122727491
-18.0736747412901 -204.663024366837 1272.37993195805
-17.998197405775 -200.352334745939 1274.2688206137
-17.7996434551662 -195.623760119194 1274.83336043979
-17.7305795217824 -191.55347573526 1277.1397513753
-17.6500099609305 -187.069490112471 1278.78694348527
-17.8446629595388 -165.811405188607 1292.74677757238
-17.7624217746457 -161.232963468526 1294.38264683046
-17.5726663448441 -182.703669958548 1280.64263558757
-17.5701795211916 -169.759766822295 1287.97353980801
-17.4046308651355 -257.264230378496 1276.78611449723
-17.3793478228524 -178.198591998483 1281.59743608784
-17.566193868394 -156.656398066931 1295.297385922
-17.9227818155762 -97.8203665455064 1329.62046035017
-17.4132311042777 -173.799998570514 1284.12399929882
-17.2461258277163 -151.713124832413 1294.87944924554
-17.7191774081063 -93.0647262376382 1330.44816648591
-17.4937717520902 -120.307569659065 1313.56000320917
-17.5208952948763 -88.5351064614968 1331.62350957817
-17.5460649066496 -83.427819664168 1333.7012620186
-16.7507618564054 -251.895808116386 1274.05729948524
-17.4179485903415 -115.951485977891 1315.75121431161
-16.8160838393719 -146.915107934325 1293.92785115834
-17.3412268166504 -78.6474379370262 1334.50924376502
-17.0978604308112 -111.17688028854 1315.62819702989
-17.6125241953455 -5.09553821880937 1373.06116715256
-16.8068756385962 -101.618027441353 1317.87318680092
-16.8896441976516 -73.5207385420797 1332.95693077267
-17.5970438082064 31.0212127307004 1389.77931193212
-16.1032792094376 -246.694537795691 1271.56800100498
-16.6535569456974 -106.088013896549 1314.16276197748
-17.2705529790077 0.0888427824238879 1372.39967500609
-16.1487821473706 -141.673953194441 1290.73433939977
-17.4397960397829 25.7076596726011 1386.10630627599
-16.7483582329185 -59.1041644881714 1338.97008787529
-16.7832542300387 -54.3720204015493 1341.76991800978
-16.4389910580664 -68.405664482732 1331.39959903967
-16.5959637800552 -63.8812824560912 1335.35245863274
-16.5707609991746 -49.3206409117022 1342.19337446123
-16.7658273476492 -19.888696051467 1358.26497695834
-16.8049997103111 5.2643324325734 1370.66447131424
-16.6052623135867 -44.5564962851604 1344.9988435867
-15.4502961270492 -241.214113969828 1268.561700312
-16.4235516083829 -34.5834080726616 1348.05067567763
-16.6543946122949 20.5540827313137 1376.6682861631
-15.669810343617 -283.461371107991 1287.45623207947
-15.717501199466 -136.77374872941 1289.56289443072
-16.2460663955323 -24.7833963353262 1351.45471810939
-16.397342394292 -39.7110779006538 1345.765449063
-16.214951181301 -29.7213349422905 1348.81266709037
-16.3458348534376 10.2146944330457 1369.28810424014
-15.4045252450599 -132.096080222931 1289.48553463162
-16.3720788775645 15.5170628846342 1371.62456754404
-15.4684050525689 -123.269674153331 1294.83055296079
-15.3657908878032 -278.903302081633 1287.95117294994
-15.0389800299135 -236.656367958328 1268.23588566127
